1501
133.245850 185.000000 70.000000
135.000000 185.000000 71.748825
135.000000 185.000000 89.601334
130.978073 190.000000 5.000000
135.000000 185.652924 10.000000
132.144333 190.000000 10.000000
131.669373 190.000000 15.000000
130.537140 190.000000 20.000000
130.694839 190.000000 70.000000
135.000000 186.965927 75.000000
132.791656 190.000000 75.000000
135.000000 190.000000 79.153908
135.000000 190.000000 89.183701
130.776947 195.000000 70.000000
132.443939 195.000000 75.000000
135.000000 190.976395 80.000000
133.141678 195.000000 80.000000
135.000000 193.465042 85.000000
133.524124 195.000000 85.000000
130.576126 200.000000 70.000000
132.311951 200.000000 75.000000
133.043243 200.000000 80.000000
133.437149 200.000000 85.000000
130.849579 205.000000 70.000000
132.537735 205.000000 75.000000
135.000000 204.811768 80.000000
135.000000 205.000000 79.868118
135.000000 201.679993 85.000000
135.000000 205.000000 88.912552
130.820892 210.000000 65.000000
131.849045 210.000000 70.000000
132.516418 210.000000 75.000000
135.000000 210.000000 79.223366
132.469940 210.000000 85.000000
135.000000 210.000000 88.858994
131.003052 215.000000 55.000000
131.998962 215.000000 60.000000
132.897720 215.000000 65.000000
135.000000 214.947296 70.000000
135.000000 215.000000 69.926376
135.000000 212.598862 75.000000
130.986755 215.000000 80.000000
133.190170 215.000000 85.000000
135.000000 215.000000 88.143951
135.000000 218.541565 0.000000
135.000000 220.000000 -1.442956
135.000000 220.000000 4.499411
134.348175 220.000000 5.000000
131.008850 220.000000 10.000000
131.613434 220.000000 15.000000
132.272888 220.000000 20.000000
132.392487 220.000000 25.000000
132.302597 220.000000 30.000000
131.848328 220.000000 35.000000
131.131531 220.000000 40.000000
131.290527 220.000000 45.000000
132.097580 220.000000 50.000000
132.759644 220.000000 55.000000
133.510712 220.000000 60.000000
134.932358 220.000000 65.000000
135.000000 220.000000 65.132614
135.000000 220.000000 79.636200
135.000000 219.625320 80.000000
135.000000 217.011032 85.000000
135.000000 221.568115 0.000000
135.000000 222.750259 10.000000
135.000000 225.000000 6.030790
135.000000 222.616959 15.000000
135.000000 222.592682 20.000000
135.000000 223.112854 25.000000
135.000000 224.206680 30.000000
134.294296 225.000000 35.000000
135.000000 225.000000 32.520424
133.393646 225.000000 40.000000
133.430023 225.000000 45.000000
134.387787 225.000000 50.000000
135.000000 223.834244 55.000000
135.000000 225.000000 51.821709
135.000000 222.087234 60.000000
135.000000 220.084534 65.000000
131.125946 225.000000 70.000000
133.462814 225.000000 75.000000
135.000000 225.000000 77.278778
132.204391 230.000000 10.000000
135.000000 230.000000 6.498974
130.561737 230.000000 15.000000
135.000000 225.721680 35.000000
135.000000 226.608948 40.000000
135.000000 226.537079 45.000000
135.000000 225.578705 50.000000
130.299332 230.000000 60.000000
132.539734 230.000000 65.000000
135.000000 230.000000 68.409286
135.000000 228.670471 70.000000
135.000000 226.427643 75.000000
135.000000 232.220932 10.000000
135.000000 233.773117 15.000000
135.000000 235.000000 17.865314
134.040817 235.000000 20.000000
133.009399 235.000000 25.000000
132.329498 235.000000 30.000000
131.518387 235.000000 35.000000
130.382660 235.000000 40.000000
130.746735 235.000000 45.000000
132.024597 235.000000 50.000000
133.104263 235.000000 55.000000
134.923874 235.000000 60.000000
135.000000 232.645187 65.000000
135.000000 235.000000 60.158440
135.000000 235.864044 20.000000
135.000000 236.779053 25.000000
135.000000 237.326065 30.000000
135.000000 237.602020 35.000000
135.000000 237.728424 40.000000
135.000000 237.691971 45.000000
135.000000 237.486328 50.000000
135.000000 236.820282 55.000000
135.000000 235.073242 60.000000
140.000000 158.595032 20.000000
140.000000 160.000000 16.611622
138.365952 160.000000 20.000000
137.554718 160.000000 25.000000
140.000000 158.026505 25.000000
137.196625 160.000000 30.000000
140.000000 157.911148 30.000000
138.118881 160.000000 35.000000
140.000000 158.626953 35.000000
140.000000 160.000000 38.798874
140.000000 162.677017 10.000000
140.000000 165.000000 6.336998
136.587143 165.000000 10.000000
140.000000 160.873932 15.000000
140.000000 160.647278 40.000000
140.000000 161.924316 45.000000
135.404816 165.000000 50.000000
140.000000 162.460388 50.000000
136.940964 165.000000 55.000000
140.000000 163.011337 55.000000
138.594986 165.000000 60.000000
140.000000 163.971878 60.000000
140.000000 165.000000 62.991547
140.000000 170.000000 5.451160
140.000000 170.000000 19.924694
140.000000 169.955017 20.000000
139.955627 170.000000 20.000000
140.000000 168.453949 25.000000
138.056702 170.000000 25.000000
140.000000 167.747070 30.000000
136.367584 170.000000 30.000000
140.000000 167.739990 35.000000
136.552429 170.000000 35.000000
140.000000 168.209518 40.000000
137.834869 170.000000 40.000000
140.000000 169.717178 45.000000
139.706879 170.000000 45.000000
140.000000 170.000000 45.469925
140.000000 166.240005 65.000000
140.000000 170.000000 68.931000
140.000000 175.000000 6.643345
137.649551 175.000000 20.000000
140.000000 175.000000 15.418041
135.631012 175.000000 25.000000
140.000000 171.748810 50.000000
136.354523 175.000000 50.000000
140.000000 172.515747 55.000000
137.395447 175.000000 55.000000
140.000000 172.633759 60.000000
137.493683 175.000000 60.000000
140.000000 172.684967 65.000000
137.476425 175.000000 65.000000
137.901978 172.685913 68.485344
140.000000 172.379944 70.000000
137.714676 175.000000 70.000000
140.000000 175.000000 68.711357
137.550446 175.000000 75.000000
140.000000 172.295319 75.000000
137.459930 175.000000 80.000000
140.000000 171.166046 80.000000
137.745667 175.000000 85.000000
140.000000 170.033844 85.000000
140.000000 175.000000 88.778671
137.486038 180.000000 10.000000
140.000000 177.206940 10.000000
140.000000 175.339264 15.000000
135.996063 180.000000 15.000000
140.000000 177.627533 70.000000
137.749146 180.000000 70.000000
140.000000 180.000000 71.205139
140.000000 180.000000 89.573715
135.555664 185.000000 10.000000
140.000000 181.779419 75.000000
136.565826 185.000000 75.000000
140.000000 182.455231 80.000000
137.561813 185.000000 80.000000
140.000000 182.907074 85.000000
138.170685 185.000000 85.000000
138.574280 185.000000 90.000000
140.000000 183.418304 90.000000
140.000000 185.000000 89.717415
138.825729 185.000000 95.000000
140.000000 183.646927 95.000000
140.000000 185.000000 96.088951
135.516052 190.000000 80.000000
137.139877 190.000000 85.000000
140.000000 190.000000 89.870445
139.229340 190.000000 90.000000
138.053909 190.000000 95.000000
140.000000 190.000000 96.828735
140.000000 190.630005 90.000000
140.000000 195.000000 91.262138
138.449966 195.000000 95.000000
140.000000 195.000000 96.478714
138.488022 200.000000 95.000000
140.000000 200.000000 91.357117
140.000000 200.000000 96.440094
135.089432 205.000000 80.000000
136.942169 205.000000 85.000000
138.281677 205.000000 95.000000
140.000000 205.000000 90.530258
140.000000 205.000000 96.596344
135.492233 210.000000 80.000000
137.218948 210.000000 85.000000
138.678314 210.000000 95.000000
140.000000 210.000000 90.738174
140.000000 210.000000 96.235771
135.044037 215.000000 70.000000
137.017288 215.000000 75.000000
139.073257 215.000000 80.000000
140.000000 213.460159 85.000000
140.000000 215.000000 81.615616
140.000000 215.000000 88.066544
140.000000 211.507553 95.000000
140.000000 218.604431 0.000000
140.000000 220.000000 -1.381460
140.000000 220.000000 3.280954
137.020447 220.000000 70.000000
138.258255 220.000000 75.000000
136.091293 220.000000 80.000000
140.000000 217.197571 80.000000
140.000000 220.000000 78.277054
138.084015 220.000000 85.000000
140.000000 220.000000 88.074646
140.000000 221.418823 0.000000
137.122879 225.000000 10.000000
137.455658 225.000000 15.000000
137.424194 225.000000 20.000000
136.840942 225.000000 25.000000
135.742920 225.000000 30.000000
135.964478 225.000000 55.000000
137.136063 225.000000 60.000000
138.177429 225.000000 65.000000
140.000000 225.000000 68.697746
140.000000 224.108398 70.000000
140.000000 222.214066 75.000000
140.000000 222.740021 80.000000
140.000000 225.000000 78.718475
140.000000 221.903442 85.000000
140.000000 227.759018 10.000000
140.000000 230.000000 6.365631
140.000000 227.456879 15.000000
140.000000 227.547836 20.000000
140.000000 228.106674 25.000000
140.000000 229.011520 30.000000
140.000000 229.503479 35.000000
140.000000 229.585587 40.000000
140.000000 229.582184 45.000000
140.000000 229.474258 50.000000
140.000000 228.807144 55.000000
140.000000 227.813446 60.000000
140.000000 227.013916 65.000000
137.483582 230.000000 70.000000
140.000000 230.000000 72.594795
140.000000 228.275772 75.000000
137.897964 235.000000 10.000000
140.000000 235.000000 6.715853
136.328842 235.000000 15.000000
137.559860 235.000000 65.000000
140.000000 235.000000 67.694809
140.000000 231.972015 70.000000
140.000000 236.807709 10.000000
140.000000 237.442001 15.000000
140.000000 237.893433 20.000000
140.000000 239.410385 25.000000
140.000000 240.000000 26.064079
138.153580 240.000000 30.000000
137.542862 240.000000 35.000000
137.451462 240.000000 40.000000
137.564941 240.000000 45.000000
137.897369 240.000000 50.000000
139.118774 240.000000 55.000000
140.000000 240.000000 56.439865
140.000000 238.223877 60.000000
140.000000 236.578766 65.000000
140.000000 241.601501 30.000000
140.000000 242.127289 35.000000
140.000000 242.165863 40.000000
140.000000 242.064758 45.000000
140.000000 241.805481 50.000000
140.000000 240.755753 55.000000
145.000000 158.190247 10.000000
145.000000 160.000000 6.663525
142.848907 160.000000 10.000000
140.948822 160.000000 15.000000
145.000000 157.709274 15.000000
145.000000 157.549164 20.000000
145.000000 157.399353 25.000000
145.000000 157.254501 30.000000
145.000000 157.376587 35.000000
140.678284 160.000000 40.000000
145.000000 157.685730 40.000000
142.682877 160.000000 45.000000
145.000000 158.490265 45.000000
145.000000 160.000000 49.000763
145.000000 165.000000 5.450926
145.000000 160.566696 50.000000
145.000000 161.933517 55.000000
145.000000 162.426834 60.000000
141.320755 165.000000 65.000000
145.000000 163.283676 65.000000
145.000000 165.000000 68.230591
145.000000 170.000000 6.734198
145.000000 170.000000 15.406649
145.000000 167.940674 20.000000
145.000000 166.943939 25.000000
145.000000 165.949036 30.000000
145.000000 166.270920 35.000000
145.000000 167.147339 40.000000
145.000000 167.664124 45.000000
145.000000 168.128952 50.000000
142.389603 170.000000 50.000000
145.000000 169.333496 55.000000
144.293076 170.000000 55.000000
145.000000 170.000000 56.257233
140.823715 170.000000 70.000000
145.000000 166.336838 70.000000
142.181137 170.000000 75.000000
145.000000 167.714142 75.000000
141.177567 170.000000 80.000000
145.000000 167.759979 80.000000
140.035156 170.000000 85.000000
145.000000 168.044662 85.000000
145.000000 170.000000 88.626923
141.935043 175.000000 10.000000
145.000000 171.890198 10.000000
145.000000 170.283188 15.000000
140.299988 175.000000 15.000000
145.000000 171.390091 60.000000
145.000000 172.635330 65.000000
145.000000 175.000000 69.387817
145.000000 175.000000 88.652428
145.000000 175.430435 70.000000
145.000000 177.237122 75.000000
141.790955 180.000000 75.000000
145.000000 177.350830 80.000000
142.246490 180.000000 80.000000
145.000000 177.252258 85.000000
142.443283 180.000000 85.000000
144.143082 180.000000 90.000000
145.000000 179.712906 90.000000
145.000000 180.000000 89.909554
143.168045 180.000000 95.000000
145.000000 178.370026 95.000000
145.000000 180.000000 96.535904
145.000000 181.764069 90.000000
142.747314 185.000000 90.000000
145.000000 185.000000 90.159767
145.000000 185.000000 97.003998
140.455414 190.000000 90.000000
145.000000 190.000000 91.702911
145.000000 190.000000 96.413155
145.000000 191.619049 95.000000
141.686859 195.000000 95.000000
141.513916 200.000000 95.000000
142.628845 205.000000 95.000000
145.000000 207.452911 95.000000
145.000000 210.000000 91.396172
145.000000 210.000000 96.523499
141.495789 215.000000 85.000000
143.348434 215.000000 95.000000
145.000000 215.000000 90.530128
145.000000 215.000000 96.370094
145.000000 219.364639 0.000000
145.000000 220.000000 -0.628924
145.000000 220.000000 1.462690
143.220978 220.000000 80.000000
145.000000 220.000000 80.932091
145.000000 218.074310 85.000000
145.000000 220.000000 89.034363
145.000000 216.671997 95.000000
145.000000 220.638657 0.000000
140.979462 225.000000 70.000000
143.168243 225.000000 75.000000
145.000000 221.490723 80.000000
145.000000 225.000000 77.577751
141.940704 225.000000 80.000000
143.058670 225.000000 85.000000
145.000000 225.000000 88.134232
143.740234 230.000000 10.000000
143.406494 230.000000 15.000000
142.653214 230.000000 20.000000
141.981644 230.000000 25.000000
141.080917 230.000000 30.000000
140.566833 230.000000 35.000000
140.485336 230.000000 40.000000
140.488220 230.000000 45.000000
140.607315 230.000000 50.000000
141.512299 230.000000 55.000000
143.361786 230.000000 60.000000
145.000000 230.000000 63.940857
145.000000 229.621750 65.000000
145.000000 228.109818 70.000000
141.799103 230.000000 75.000000
145.000000 226.908569 75.000000
145.000000 230.000000 78.035278
145.000000 227.363205 80.000000
145.000000 226.730789 85.000000
145.000000 231.237885 10.000000
145.000000 235.000000 6.318319
145.000000 231.535400 15.000000
145.000000 232.186340 20.000000
145.000000 232.366852 25.000000
145.000000 232.412170 30.000000
145.000000 232.503891 35.000000
145.000000 232.622238 40.000000
145.000000 232.611237 45.000000
145.000000 232.469574 50.000000
145.000000 232.116241 55.000000
145.000000 231.273972 60.000000
145.000000 235.000000 68.420448
145.000000 233.074646 70.000000
145.000000 231.574463 75.000000
145.000000 237.511215 10.000000
145.000000 239.684692 15.000000
145.000000 240.000000 15.460413
142.688583 240.000000 20.000000
140.682495 240.000000 25.000000
145.000000 240.000000 58.980438
145.000000 239.289688 60.000000
145.000000 237.124023 65.000000
145.000000 241.838654 20.000000
145.000000 242.412476 25.000000
145.000000 242.663330 30.000000
145.000000 242.743866 35.000000
145.000000 242.733185 40.000000
145.000000 242.667969 45.000000
145.000000 242.516541 50.000000
145.000000 241.800964 55.000000
150.000000 153.514938 30.000000
150.000000 155.000000 26.086006
148.125534 155.000000 30.000000
149.103546 155.000000 35.000000
150.000000 154.317902 35.000000
150.000000 155.000000 36.168980
150.000000 157.779938 10.000000
150.000000 160.000000 5.992329
150.000000 157.312531 15.000000
150.000000 157.015442 20.000000
150.000000 155.552734 25.000000
150.000000 156.878387 40.000000
150.000000 158.099991 45.000000
147.931290 160.000000 50.000000
150.000000 159.662796 50.000000
150.000000 160.000000 51.114395
150.000000 165.000000 5.944492
150.000000 165.000000 28.165344
150.000000 164.441391 30.000000
148.296814 165.000000 30.000000
150.000000 165.000000 33.710823
150.000000 161.259552 55.000000
150.000000 161.684387 60.000000
150.000000 162.593781 65.000000
150.000000 165.000000 69.324799
146.934387 170.000000 10.000000
150.000000 167.404343 10.000000
150.000000 167.373123 15.000000
145.312622 170.000000 15.000000
150.000000 166.842468 20.000000
150.000000 165.851868 25.000000
150.000000 165.194000 35.000000
150.000000 166.627579 40.000000
150.000000 167.163300 45.000000
150.000000 167.300598 50.000000
150.000000 167.496643 55.000000
150.000000 167.853363 60.000000
146.962051 170.000000 60.000000
150.000000 168.426071 65.000000
148.717209 170.000000 65.000000
150.000000 170.000000 67.297607
150.000000 166.120850 70.000000
150.000000 167.311066 75.000000
150.000000 167.538208 80.000000
150.000000 168.071228 85.000000
150.000000 170.000000 88.281036
150.000000 171.231476 70.000000
145.457794 175.000000 70.000000
150.000000 172.411896 75.000000
147.331604 175.000000 75.000000
150.000000 172.492554 80.000000
147.424652 175.000000 80.000000
150.000000 172.102875 85.000000
147.043472 175.000000 85.000000
145.398499 180.000000 90.000000
150.000000 180.000000 91.084152
150.000000 178.321304 95.000000
150.000000 180.000000 96.648132
150.000000 183.204971 95.000000
148.520325 185.000000 95.000000
146.472015 190.000000 95.000000
146.623764 210.000000 95.000000
149.083786 215.000000 95.000000
145.623322 220.000000 0.000000
147.017120 220.000000 85.000000
148.367493 220.000000 95.000000
150.000000 220.000000 90.332718
150.000000 215.943268 95.000000
150.000000 220.000000 96.332855
150.000000 224.799194 80.000000
150.000000 225.000000 79.725204
150.000000 222.776184 85.000000
150.000000 225.000000 88.844772
150.000000 221.433838 95.000000
145.612305 230.000000 65.000000
150.000000 230.000000 69.130722
150.000000 229.475876 70.000000
150.000000 227.939667 75.000000
148.820923 227.150803 79.184708
150.000000 227.082458 80.000000
150.000000 230.000000 79.479286
150.000000 227.247604 85.000000
150.000000 232.943176 10.000000
150.000000 235.000000 6.287521
150.000000 233.278534 15.000000
150.000000 234.330292 20.000000
150.000000 234.397705 25.000000
150.000000 234.127884 30.000000
150.000000 235.000000 34.134388
149.740814 235.000000 35.000000
148.128540 235.000000 40.000000
148.251419 235.000000 45.000000
150.000000 235.000000 49.750076
150.000000 234.898346 50.000000
150.000000 233.490356 55.000000
150.000000 232.780762 60.000000
150.000000 232.254776 65.000000
148.095627 235.000000 70.000000
150.000000 235.000000 71.368332
150.000000 232.735046 75.000000
147.660156 240.000000 10.000000
150.000000 240.000000 6.652786
145.329865 240.000000 15.000000
150.000000 235.220657 35.000000
150.000000 236.653809 40.000000
150.000000 236.583130 45.000000
145.760437 240.000000 60.000000
148.177673 240.000000 65.000000
150.000000 240.000000 67.488205
150.000000 236.330078 70.000000
150.000000 241.837891 10.000000
150.000000 242.580017 15.000000
150.000000 243.218567 20.000000
150.000000 244.504608 25.000000
150.000000 245.000000 26.317917
148.672119 245.000000 30.000000
148.170319 245.000000 35.000000
148.211243 245.000000 40.000000
149.189117 245.000000 45.000000
150.000000 245.000000 46.675919
150.000000 243.713562 50.000000
150.000000 242.827881 55.000000
150.000000 242.374084 60.000000
150.000000 241.430756 65.000000
150.000000 246.098907 30.000000
150.000000 246.538208 35.000000
150.000000 246.500061 40.000000
150.000000 245.650879 45.000000
155.000000 153.267029 20.000000
155.000000 155.000000 16.188408
152.715729 155.000000 20.000000
150.641251 155.000000 25.000000
155.000000 152.718277 25.000000
155.000000 152.659149 30.000000
155.000000 153.837250 35.000000
155.000000 155.000000 36.934914
155.000000 157.623154 10.000000
155.000000 160.000000 6.008564
155.000000 155.755127 15.000000
155.000000 156.724243 40.000000
155.000000 157.509430 45.000000
155.000000 157.703171 50.000000
151.629105 160.000000 55.000000
155.000000 158.215622 55.000000
154.128967 160.000000 60.000000
155.000000 159.632874 60.000000
155.000000 160.000000 60.915405
155.000000 165.000000 6.461618
155.000000 165.000000 16.029106
155.000000 163.174149 20.000000
152.550217 165.000000 20.000000
155.000000 162.722595 25.000000
151.063263 165.000000 25.000000
155.000000 162.725662 30.000000
155.000000 163.871735 35.000000
150.673584 165.000000 35.000000
155.000000 165.000000 36.806046
155.000000 161.860291 65.000000
151.179413 165.000000 70.000000
155.000000 163.684555 70.000000
155.000000 165.000000 74.776871
155.000000 166.831268 10.000000
155.000000 165.588959 15.000000
155.000000 166.635345 40.000000
155.000000 167.397842 45.000000
155.000000 167.465302 50.000000
155.000000 167.439606 55.000000
155.000000 167.395172 60.000000
155.000000 167.610916 65.000000
155.000000 170.000000 68.926552
155.000000 165.084396 75.000000
155.000000 165.370712 80.000000
155.000000 166.126953 85.000000
155.000000 170.000000 88.614899
155.000000 170.660919 70.000000
155.000000 172.188477 75.000000
155.000000 172.292908 80.000000
155.000000 171.997818 85.000000
155.000000 178.380676 95.000000
155.000000 180.000000 91.743347
155.000000 180.000000 96.399475
155.000000 181.485992 95.000000
155.000000 218.400192 95.000000
155.000000 220.000000 90.784065
155.000000 220.000000 96.473541
155.000000 224.886093 80.000000
155.000000 225.000000 79.843399
155.000000 222.939682 85.000000
155.000000 225.000000 89.152328
155.000000 221.603058 95.000000
152.901276 230.000000 70.000000
155.000000 230.000000 71.024864
155.000000 228.491043 75.000000
151.261368 230.000000 80.000000
155.000000 230.000000 82.754257
155.000000 229.040314 85.000000
155.000000 234.069611 10.000000
155.000000 235.000000 8.182240
155.000000 235.000000 13.420048
154.109467 235.000000 15.000000
150.987610 235.000000 20.000000
150.754120 235.000000 25.000000
151.064835 235.000000 30.000000
150.134186 235.000000 50.000000
152.620087 235.000000 55.000000
155.000000 235.000000 57.598610
155.000000 233.676895 60.000000
155.000000 232.237946 65.000000
155.000000 230.477524 70.000000
152.236023 235.000000 75.000000
155.000000 235.000000 78.065201
155.000000 231.738968 80.000000
155.000000 240.000000 6.214222
155.000000 235.549652 15.000000
155.000000 237.098618 20.000000
155.000000 237.355621 25.000000
155.000000 237.350616 30.000000
155.000000 237.408234 35.000000
155.000000 237.506866 40.000000
155.000000 237.573761 45.000000
155.000000 237.548080 50.000000
155.000000 236.672989 55.000000
155.000000 240.000000 68.507607
155.000000 238.830688 70.000000
155.000000 236.715637 75.000000
155.000000 242.139496 10.000000
155.000000 243.689240 15.000000
155.000000 245.000000 17.422874
152.966904 245.000000 20.000000
150.783920 245.000000 25.000000
155.000000 245.000000 46.480209
155.000000 243.126190 50.000000
155.000000 242.357422 55.000000
155.000000 242.359589 60.000000
155.000000 241.824463 65.000000
155.000000 246.218964 20.000000
155.000000 246.799194 25.000000
155.000000 246.917908 30.000000
155.000000 246.950134 35.000000
155.000000 246.862946 40.000000
155.000000 245.784912 45.000000
160.000000 152.968353 20.000000
160.000000 155.000000 15.829262
160.000000 152.534302 25.000000
160.000000 152.600128 30.000000
160.000000 153.826904 35.000000
160.000000 155.000000 36.949677
160.000000 157.897125 10.000000
160.000000 160.000000 6.373260
160.000000 155.668518 15.000000
160.000000 156.718597 40.000000
160.000000 157.444611 45.000000
160.000000 157.506500 50.000000
160.000000 157.553635 55.000000
160.000000 157.703918 60.000000
157.280060 160.000000 65.000000
160.000000 158.463684 65.000000
160.000000 160.000000 67.776787
159.243301 165.000000 10.000000
160.000000 164.311966 10.000000
160.000000 163.500046 15.000000
156.373825 165.000000 15.000000
160.000000 162.687759 20.000000
160.000000 162.513550 25.000000
160.000000 162.586487 30.000000
160.000000 163.734222 35.000000
160.000000 165.000000 36.986431
160.000000 162.450089 70.000000
155.769684 165.000000 75.000000
160.000000 164.670731 75.000000
158.481155 165.000000 80.000000
160.000000 164.872925 80.000000
160.000000 165.000000 81.224136
160.000000 166.626053 40.000000
160.000000 167.421814 45.000000
160.000000 167.493668 50.000000
160.000000 167.492554 55.000000
160.000000 167.501801 60.000000
160.000000 167.772995 65.000000
160.000000 170.000000 69.004929
160.000000 165.587585 85.000000
160.000000 170.000000 89.184181
160.000000 170.631470 70.000000
160.000000 172.201599 75.000000
160.000000 172.320587 80.000000
160.000000 172.249725 85.000000
160.000000 173.542648 95.000000
160.000000 175.000000 91.088264
158.420868 175.000000 95.000000
160.000000 175.000000 96.359207
160.000000 180.000000 92.405251
160.000000 180.000000 96.115479
160.000000 181.105652 95.000000
160.000000 218.545547 95.000000
160.000000 220.000000 90.876053
160.000000 220.000000 96.439278
160.000000 224.952606 80.000000
160.000000 225.000000 79.937515
160.000000 222.928146 85.000000
160.000000 225.000000 89.190712
160.000000 221.569534 95.000000
160.000000 229.689972 75.000000
160.000000 230.000000 74.248589
160.000000 230.000000 82.037476
160.000000 229.359985 85.000000
160.000000 233.990463 10.000000
160.000000 235.000000 8.012266
160.000000 235.000000 13.052597
160.000000 233.685135 60.000000
160.000000 235.000000 57.602043
160.000000 232.367157 65.000000
160.000000 231.390991 70.000000
160.000000 235.000000 77.914825
160.000000 230.757935 80.000000
160.000000 240.000000 6.210091
160.000000 235.729553 15.000000
160.000000 237.222275 20.000000
160.000000 237.506409 25.000000
160.000000 237.547485 30.000000
160.000000 237.556473 35.000000
160.000000 237.560043 40.000000
160.000000 237.582016 45.000000
160.000000 237.555374 50.000000
160.000000 236.679840 55.000000
160.000000 240.000000 68.506927
160.000000 238.797379 70.000000
160.000000 236.627060 75.000000
160.000000 242.165802 10.000000
160.000000 244.260437 15.000000
160.000000 245.000000 15.984856
160.000000 245.000000 46.345085
160.000000 243.042786 50.000000
160.000000 242.303711 55.000000
160.000000 242.336761 60.000000
160.000000 241.822235 65.000000
160.000000 246.949738 20.000000
160.000000 247.239288 25.000000
160.000000 247.059082 30.000000
160.000000 246.962799 35.000000
160.000000 246.860229 40.000000
160.000000 245.739716 45.000000
165.000000 153.299591 20.000000
165.000000 155.000000 16.497774
165.000000 152.720169 25.000000
165.000000 152.659180 30.000000
165.000000 153.837296 35.000000
165.000000 155.000000 36.936096
165.000000 157.927872 10.000000
165.000000 160.000000 6.380211
165.000000 156.022858 15.000000
165.000000 156.727234 40.000000
165.000000 157.453308 45.000000
165.000000 157.510101 50.000000
165.000000 157.554047 55.000000
165.000000 157.704086 60.000000
165.000000 158.463989 65.000000
165.000000 160.000000 67.775711
165.000000 164.335724 10.000000
165.000000 163.613312 15.000000
165.000000 162.802505 20.000000
165.000000 162.584717 25.000000
165.000000 162.605820 30.000000
165.000000 163.667999 35.000000
165.000000 165.000000 37.201023
165.000000 162.454987 70.000000
165.000000 164.738586 75.000000
165.000000 165.000000 78.186752
162.355804 165.000000 80.000000
165.000000 166.499329 40.000000
165.000000 167.344238 45.000000
165.000000 167.463394 50.000000
165.000000 167.489609 55.000000
165.000000 167.501816 60.000000
165.000000 167.772995 65.000000
165.000000 170.000000 69.005699
165.000000 165.187469 80.000000
165.000000 166.080017 85.000000
165.000000 170.000000 89.216118
165.000000 170.630920 70.000000
165.000000 172.198242 75.000000
165.000000 172.310013 80.000000
165.000000 172.262573 85.000000
165.000000 174.949203 90.000000
165.000000 173.102264 95.000000
165.000000 175.000000 96.781326
165.000000 175.023651 90.000000
165.000000 180.000000 92.243385
165.000000 180.000000 96.185074
165.000000 181.172409 95.000000
165.000000 218.335938 95.000000
165.000000 220.000000 90.728806
165.000000 220.000000 96.487129
165.000000 224.788452 80.000000
165.000000 225.000000 79.695251
165.000000 222.932526 85.000000
165.000000 225.000000 89.142715
165.000000 221.616348 95.000000
165.000000 229.753860 70.000000
165.000000 230.000000 69.614471
164.236755 230.000000 70.000000
165.000000 227.918243 75.000000
165.000000 230.000000 83.119904
165.000000 228.960281 85.000000
165.000000 232.764648 10.000000
165.000000 235.000000 6.149414
162.928772 235.000000 15.000000
165.000000 234.487335 15.000000
165.000000 235.000000 15.691708
165.000000 233.639648 55.000000
165.000000 235.000000 50.785835
162.526306 235.000000 55.000000
165.000000 232.914581 60.000000
165.000000 232.440399 65.000000
165.000000 232.979370 75.000000
165.000000 235.000000 71.659737
162.825317 235.000000 75.000000
165.000000 231.238281 80.000000
165.000000 240.000000 6.031248
165.000000 237.096176 20.000000
165.000000 237.429062 25.000000
165.000000 237.391693 30.000000
165.000000 237.434601 35.000000
165.000000 237.488388 40.000000
165.000000 237.033997 45.000000
165.000000 235.382965 50.000000
165.000000 240.000000 67.500168
165.000000 236.489944 70.000000
165.000000 242.252686 10.000000
165.000000 244.278595 15.000000
165.000000 245.000000 15.997147
165.000000 245.000000 45.512444
165.000000 243.061188 50.000000
165.000000 242.381775 55.000000
165.000000 242.194702 60.000000
165.000000 241.418274 65.000000
165.000000 246.934174 20.000000
165.000000 247.122681 25.000000
165.000000 246.776184 30.000000
165.000000 246.594421 35.000000
165.000000 246.475677 40.000000
165.000000 245.275208 45.000000
167.258423 155.000000 20.000000
169.391479 155.000000 25.000000
170.000000 155.000000 26.030544
170.000000 153.509125 30.000000
170.000000 154.317474 35.000000
170.000000 155.000000 36.176285
170.000000 157.928940 10.000000
170.000000 160.000000 6.193150
170.000000 157.437927 15.000000
170.000000 157.106873 20.000000
170.000000 155.563629 25.000000
170.000000 156.831390 40.000000
170.000000 157.514435 45.000000
170.000000 157.704681 50.000000
170.000000 158.247009 55.000000
170.000000 159.793610 60.000000
170.000000 160.000000 60.491302
167.575317 160.000000 65.000000
165.687958 165.000000 10.000000
170.000000 165.000000 6.378679
167.084183 165.000000 15.000000
169.597244 165.000000 20.000000
170.000000 165.000000 20.753815
170.000000 163.564072 25.000000
170.000000 162.858734 30.000000
170.000000 163.827087 35.000000
170.000000 165.000000 36.831490
170.000000 162.016846 65.000000
170.000000 163.817459 70.000000
170.000000 165.000000 73.120308
166.357391 165.000000 75.000000
170.000000 167.009750 10.000000
170.000000 166.629089 15.000000
170.000000 165.282974 20.000000
170.000000 166.642471 40.000000
170.000000 167.415329 45.000000
170.000000 167.473236 50.000000
170.000000 167.442932 55.000000
170.000000 167.400955 60.000000
170.000000 167.612305 65.000000
170.000000 170.000000 68.902550
170.000000 165.845200 75.000000
170.000000 167.052231 80.000000
170.000000 168.032562 85.000000
170.000000 170.000000 88.814011
170.000000 170.668121 70.000000
170.000000 172.160782 75.000000
170.000000 172.210571 80.000000
170.000000 172.083572 85.000000
170.000000 174.768051 90.000000
170.000000 175.000000 89.946548
170.000000 173.097748 95.000000
170.000000 175.000000 96.798203
170.000000 175.425903 90.000000
170.000000 180.000000 90.663223
170.000000 180.000000 96.863327
170.000000 181.999512 95.000000
170.000000 214.025665 95.000000
170.000000 215.000000 92.960037
169.004913 215.000000 95.000000
170.000000 215.000000 95.852806
170.000000 219.705566 90.000000
170.000000 220.000000 89.844391
168.952454 220.000000 90.000000
170.000000 220.000000 96.438942
170.000000 224.699875 80.000000
170.000000 225.000000 79.562866
170.000000 222.754791 85.000000
170.000000 220.500061 90.000000
170.000000 225.000000 88.690987
170.000000 221.537018 95.000000
170.000000 228.004211 10.000000
170.000000 230.000000 6.156986
168.033966 230.000000 10.000000
170.000000 230.000000 14.318617
170.000000 229.315048 70.000000
170.000000 230.000000 68.889320
170.000000 227.801987 75.000000
170.000000 226.335831 80.000000
168.027878 230.000000 80.000000
170.000000 230.000000 78.745338
170.000000 226.878281 85.000000
170.000000 235.000000 5.480953
170.000000 231.017288 15.000000
170.000000 235.000000 17.011845
170.000000 234.577759 30.000000
170.000000 235.000000 28.856583
169.473236 235.000000 30.000000
170.000000 235.000000 33.324242
170.000000 234.442520 50.000000
170.000000 235.000000 48.771301
166.751251 235.000000 50.000000
170.000000 233.248260 55.000000
170.000000 232.850464 60.000000
170.000000 232.547775 65.000000
169.168213 235.000000 70.000000
170.000000 235.000000 69.681076
170.000000 234.066254 70.000000
170.000000 232.310577 75.000000
170.000000 240.000000 6.635475
170.000000 236.713333 20.000000
170.000000 236.344330 25.000000
170.000000 235.278412 35.000000
170.000000 236.940018 40.000000
170.000000 236.711914 45.000000
170.000000 240.000000 58.880432
170.000000 239.063416 60.000000
169.180939 240.000000 60.000000
170.000000 237.095154 65.000000
166.835815 240.000000 65.000000
170.000000 241.899109 10.000000
170.000000 243.498840 15.000000
170.000000 245.000000 17.976250
170.000000 245.000000 24.942009
170.000000 244.984650 25.000000
169.980911 245.000000 25.000000
170.000000 243.121765 30.000000
167.540588 245.000000 30.000000
170.000000 242.625702 35.000000
166.923828 245.000000 35.000000
170.000000 242.484619 40.000000
166.761261 245.000000 40.000000
170.000000 242.425903 45.000000
165.349442 245.000000 45.000000
170.000000 242.358032 50.000000
170.000000 241.704681 55.000000
170.000000 245.921478 20.000000
171.911438 155.000000 30.000000
170.898834 155.000000 35.000000
175.000000 158.932175 10.000000
175.000000 160.000000 8.051666
175.000000 157.995148 15.000000
175.000000 157.492813 20.000000
175.000000 157.333405 25.000000
175.000000 157.301331 30.000000
175.000000 157.442139 35.000000
175.000000 157.690399 40.000000
175.000000 158.352417 45.000000
175.000000 159.939804 50.000000
175.000000 160.000000 50.159348
172.882385 160.000000 55.000000
170.311615 160.000000 60.000000
175.000000 165.000000 5.855728
172.600174 165.000000 25.000000
175.000000 165.000000 28.048836
175.000000 163.978851 30.000000
175.000000 164.901566 35.000000
175.000000 165.000000 35.134491
175.000000 161.664902 55.000000
175.000000 162.390213 60.000000
175.000000 163.325806 65.000000
175.000000 165.000000 68.339607
172.572144 165.000000 70.000000
175.000000 169.077316 10.000000
175.000000 168.443207 15.000000
175.000000 167.505127 20.000000
175.000000 166.232010 25.000000
175.000000 166.842270 40.000000
175.000000 167.419769 45.000000
175.000000 167.484909 50.000000
175.000000 167.636337 55.000000
175.000000 168.010010 60.000000
175.000000 168.606567 65.000000
175.000000 167.224365 70.000000
175.000000 170.000000 66.918839
175.000000 167.783203 75.000000
175.000000 167.969650 80.000000
175.000000 168.460327 85.000000
175.000000 170.000000 88.102921
175.000000 171.174683 70.000000
175.000000 172.177048 75.000000
175.000000 172.260712 80.000000
175.000000 172.058395 85.000000
170.192719 175.000000 90.000000
175.000000 175.000000 94.072556
175.000000 174.770203 95.000000
175.000000 175.000000 95.214478
175.000000 180.000000 89.877739
174.001190 180.000000 90.000000
175.000000 179.514786 90.000000
175.000000 180.000000 97.058983
175.000000 180.268707 90.000000
175.000000 185.000000 94.059639
174.529953 185.000000 95.000000
175.000000 185.000000 95.400070
175.000000 185.466949 95.000000
175.000000 208.272217 95.000000
175.000000 210.000000 91.391434
173.330475 210.000000 95.000000
175.000000 210.000000 96.523277
174.886566 215.000000 90.000000
175.000000 215.000000 96.538635
175.000000 217.842682 85.000000
175.000000 220.000000 80.437660
172.713867 220.000000 85.000000
171.174454 220.000000 90.000000
175.000000 220.000000 89.447594
175.000000 215.511246 90.000000
175.000000 216.866791 95.000000
171.762711 220.000000 95.000000
175.000000 224.793869 75.000000
175.000000 225.000000 74.585114
174.724457 225.000000 75.000000
175.000000 220.641083 80.000000
175.000000 225.000000 87.715446
175.000000 225.753403 10.000000
175.000000 230.000000 5.668873
171.290604 230.000000 15.000000
175.000000 228.460159 15.000000
175.000000 230.000000 16.406374
175.000000 228.679047 65.000000
175.000000 230.000000 61.361259
173.175034 230.000000 65.000000
175.000000 227.022110 70.000000
175.000000 230.000000 78.557083
175.000000 228.002914 80.000000
175.000000 226.500107 85.000000
175.000000 235.000000 6.150860
172.284836 235.000000 20.000000
175.000000 232.576126 20.000000
171.716248 235.000000 25.000000
175.000000 232.820557 25.000000
175.000000 232.552933 30.000000
170.336365 235.000000 35.000000
175.000000 232.812408 35.000000
172.594543 235.000000 40.000000
175.000000 233.405090 40.000000
172.292389 235.000000 45.000000
175.000000 233.336807 45.000000
175.000000 232.702698 50.000000
175.000000 231.980774 55.000000
175.000000 230.592041 60.000000
175.000000 233.538818 70.000000
175.000000 235.000000 68.428841
175.000000 231.907074 75.000000
172.298874 240.000000 10.000000
175.000000 237.523438 10.000000
175.000000 239.901520 15.000000
174.913498 240.000000 15.000000
175.000000 240.000000 15.104666
175.000000 240.000000 57.371964
175.000000 238.430923 60.000000
175.000000 236.786514 65.000000
175.000000 242.205841 20.000000
171.092865 245.000000 20.000000
175.000000 242.454346 25.000000
175.000000 242.273285 30.000000
175.000000 242.196838 35.000000
175.000000 242.201660 40.000000
175.000000 242.196838 45.000000
175.000000 242.107819 50.000000
175.000000 241.252380 55.000000
176.318832 160.000000 10.000000
179.253220 160.000000 15.000000
180.000000 160.000000 15.781273
180.000000 158.106812 20.000000
180.000000 157.745193 25.000000
180.000000 157.854935 30.000000
180.000000 158.606323 35.000000
180.000000 160.000000 39.227200
179.574661 160.000000 40.000000
177.778290 160.000000 45.000000
175.109955 160.000000 50.000000
180.000000 162.886810 10.000000
180.000000 165.000000 6.635780
180.000000 160.583008 15.000000
176.026459 165.000000 30.000000
175.099869 165.000000 35.000000
180.000000 160.412964 40.000000
180.000000 161.619553 45.000000
180.000000 162.021423 50.000000
180.000000 162.297302 55.000000
180.000000 162.582825 60.000000
180.000000 163.376282 65.000000
180.000000 165.000000 68.046509
176.160141 170.000000 10.000000
180.000000 170.000000 6.431772
178.177460 170.000000 15.000000
180.000000 170.000000 17.004639
180.000000 168.628082 20.000000
180.000000 167.941208 25.000000
180.000000 167.588013 30.000000
180.000000 167.479584 35.000000
180.000000 167.549454 40.000000
180.000000 168.106308 45.000000
180.000000 169.679504 50.000000
180.000000 170.000000 50.763405
178.432846 170.000000 55.000000
177.272003 170.000000 60.000000
176.010910 170.000000 65.000000
180.000000 166.769562 70.000000
180.000000 168.662888 75.000000
180.000000 169.826172 80.000000
180.000000 170.000000 80.559166
177.952087 170.000000 85.000000
180.000000 172.140442 10.000000
180.000000 171.041855 15.000000
180.000000 171.235718 55.000000
180.000000 172.028992 60.000000
180.000000 172.580276 65.000000
180.000000 173.281494 70.000000
180.000000 175.000000 73.926651
179.556519 175.000000 75.000000
178.280945 175.000000 80.000000
180.000000 171.848770 85.000000
177.736115 175.000000 85.000000
180.000000 175.000000 89.116096
175.277466 175.000000 95.000000
180.000000 175.436249 75.000000
180.000000 177.274902 80.000000
180.000000 179.305847 85.000000
180.000000 180.000000 86.012817
180.000000 176.264114 90.000000
180.000000 178.097534 95.000000
180.000000 180.000000 96.651550
179.145905 185.000000 90.000000
180.000000 185.000000 89.523964
180.000000 185.000000 97.043388
180.000000 187.117279 90.000000
180.000000 190.000000 90.850815
178.108841 190.000000 95.000000
180.000000 190.000000 96.759270
180.000000 194.469208 95.000000
180.000000 200.037018 95.000000
180.000000 205.000000 90.647003
178.020477 205.000000 95.000000
180.000000 205.000000 96.776268
180.000000 208.621155 90.000000
180.000000 210.000000 89.781197
179.229492 210.000000 90.000000
180.000000 210.000000 96.661514
180.000000 213.120560 85.000000
180.000000 215.000000 81.427727
178.105026 215.000000 85.000000
175.703705 215.000000 90.000000
180.000000 215.000000 89.515076
180.000000 212.071701 90.000000
180.000000 212.206955 95.000000
177.076569 215.000000 95.000000
180.000000 217.891251 80.000000
180.000000 220.000000 79.100250
176.451965 220.000000 80.000000
180.000000 220.000000 88.410034
180.000000 220.046524 10.000000
180.000000 225.000000 5.662725
175.808273 225.000000 10.000000
178.604614 225.000000 15.000000
180.000000 223.509369 15.000000
180.000000 225.000000 16.300549
180.000000 223.736710 70.000000
180.000000 225.000000 67.525497
177.837296 225.000000 70.000000
180.000000 222.451996 75.000000
178.936859 225.000000 80.000000
180.000000 225.000000 79.315269
180.000000 222.854843 80.000000
176.735748 225.000000 85.000000
180.000000 222.044098 85.000000
180.000000 230.000000 5.625257
177.697830 230.000000 20.000000
180.000000 227.657837 20.000000
178.358932 230.000000 25.000000
180.000000 228.358139 25.000000
178.514725 230.000000 30.000000
180.000000 228.568634 30.000000
179.971008 230.000000 35.000000
180.000000 229.973587 35.000000
180.000000 230.000000 35.056343
180.000000 229.689804 50.000000
180.000000 230.000000 49.277664
179.626648 230.000000 50.000000
177.722778 230.000000 55.000000
180.000000 228.264496 55.000000
175.666840 230.000000 60.000000
180.000000 227.411057 60.000000
180.000000 226.303833 65.000000
180.000000 230.000000 77.894211
180.000000 235.000000 9.242691
180.000000 231.807388 40.000000
180.000000 231.648407 45.000000
180.000000 235.000000 67.855011
180.000000 233.560669 70.000000
180.000000 231.703354 75.000000
180.000000 235.450745 10.000000
180.000000 238.321106 15.000000
180.000000 240.000000 16.975443
180.000000 240.000000 26.676704
180.000000 238.478989 30.000000
178.382858 240.000000 30.000000
180.000000 238.289642 35.000000
178.221451 240.000000 35.000000
180.000000 239.106018 40.000000
179.070450 240.000000 40.000000
180.000000 238.981323 45.000000
178.912582 240.000000 45.000000
180.000000 238.159973 50.000000
177.924530 240.000000 50.000000
180.000000 237.682373 55.000000
176.577332 240.000000 55.000000
180.000000 237.327911 60.000000
180.000000 236.485001 65.000000
180.000000 241.486847 20.000000
180.000000 240.760223 25.000000
183.621429 160.000000 20.000000
183.681183 160.000000 25.000000
182.874695 160.000000 30.000000
181.763992 160.000000 35.000000
182.183395 165.000000 10.000000
184.785995 165.000000 15.000000
185.000000 165.000000 15.254519
185.000000 161.227600 20.000000
185.000000 161.202026 25.000000
185.000000 161.926956 30.000000
185.000000 162.332291 35.000000
185.000000 162.557739 40.000000
185.000000 162.686646 45.000000
185.000000 162.786880 50.000000
185.000000 163.144379 55.000000
185.000000 164.037689 60.000000
185.000000 165.000000 62.891647
183.639587 165.000000 65.000000
185.000000 167.848969 10.000000
185.000000 170.000000 6.677864
185.000000 165.238190 15.000000
181.587036 170.000000 20.000000
182.441544 170.000000 25.000000
182.961884 170.000000 30.000000
183.158707 170.000000 35.000000
183.092667 170.000000 40.000000
182.319702 170.000000 45.000000
180.358032 170.000000 50.000000
185.000000 166.078796 65.000000
185.000000 170.000000 69.278870
184.181976 170.000000 70.000000
181.599258 170.000000 75.000000
180.213440 170.000000 80.000000
182.841187 175.000000 10.000000
185.000000 175.000000 6.346092
184.233063 175.000000 15.000000
185.000000 175.000000 16.204269
185.000000 172.984787 20.000000
185.000000 172.328354 25.000000
185.000000 171.958633 30.000000
185.000000 171.803268 35.000000
185.000000 171.820755 40.000000
185.000000 172.103790 45.000000
185.000000 172.552200 50.000000
185.000000 173.285889 55.000000
185.000000 175.000000 59.846710
184.917358 175.000000 60.000000
183.091370 175.000000 65.000000
185.000000 170.760254 70.000000
181.621826 175.000000 70.000000
185.000000 172.495300 75.000000
185.000000 172.726196 80.000000
185.000000 173.208588 85.000000
185.000000 175.000000 88.220154
185.000000 179.642944 10.000000
185.000000 176.529144 15.000000
185.000000 175.075989 60.000000
185.000000 176.864685 65.000000
185.000000 178.598709 70.000000
185.000000 180.000000 72.618500
183.974686 180.000000 75.000000
182.204575 180.000000 80.000000
180.497742 180.000000 85.000000
185.000000 179.853516 90.000000
185.000000 180.000000 90.053543
181.901306 180.000000 95.000000
185.000000 181.185272 75.000000
185.000000 183.925705 80.000000
185.000000 185.000000 81.863800
183.667068 185.000000 85.000000
184.955368 185.000000 95.000000
185.000000 185.000000 94.873924
185.000000 186.489197 85.000000
185.000000 190.000000 89.532814
183.093170 190.000000 90.000000
185.000000 185.054596 95.000000
185.000000 190.000000 96.783615
185.000000 194.529785 90.000000
185.000000 195.000000 90.065140
180.533600 195.000000 95.000000
185.000000 195.000000 96.750366
185.000000 196.043274 90.000000
185.000000 200.000000 89.826263
184.721924 200.000000 90.000000
180.036530 200.000000 95.000000
185.000000 200.000000 96.791016
181.383957 205.000000 90.000000
185.000000 205.000000 88.010422
185.000000 205.000000 96.649323
185.000000 207.115021 85.000000
185.000000 210.000000 80.657410
183.033768 210.000000 85.000000
183.143768 210.000000 90.000000
185.000000 210.000000 89.799881
185.000000 209.603851 90.000000
182.256348 210.000000 95.000000
185.000000 207.246567 95.000000
185.000000 211.425140 10.000000
185.000000 215.000000 5.928907
182.915512 215.000000 10.000000
185.000000 215.000000 14.365738
185.000000 211.663605 80.000000
185.000000 215.000000 79.006813
182.751099 215.000000 80.000000
185.000000 215.000000 88.584282
182.588135 211.294952 89.672203
180.041672 220.000000 10.000000
185.000000 220.000000 5.372532
185.000000 216.073318 15.000000
183.158112 220.000000 15.000000
185.000000 220.000000 16.745050
185.000000 219.121490 70.000000
185.000000 220.000000 68.593254
184.158051 220.000000 70.000000
182.521805 220.000000 75.000000
185.000000 217.512054 75.000000
185.000000 217.860657 85.000000
182.797821 220.000000 85.000000
185.000000 220.000000 80.964523
185.000000 225.000000 5.382957
182.049637 225.000000 20.000000
185.000000 221.924011 20.000000
182.773438 225.000000 25.000000
185.000000 222.694489 25.000000
183.212433 225.000000 30.000000
185.000000 223.145721 30.000000
184.710358 225.000000 35.000000
185.000000 224.700134 35.000000
185.000000 225.000000 35.563332
185.000000 223.493561 60.000000
185.000000 225.000000 56.700912
183.265381 225.000000 60.000000
181.458603 225.000000 65.000000
185.000000 221.908585 65.000000
185.000000 221.193848 80.000000
185.000000 225.000000 78.097038
185.000000 230.000000 6.567705
181.801437 230.000000 40.000000
185.000000 226.846222 40.000000
181.673157 230.000000 45.000000
185.000000 227.254028 45.000000
185.000000 226.889496 50.000000
185.000000 225.862457 55.000000
185.000000 229.607635 70.000000
184.623093 230.000000 70.000000
185.000000 230.000000 69.448013
185.000000 227.279587 75.000000
182.224884 230.000000 75.000000
180.534134 235.000000 10.000000
185.000000 232.110886 10.000000
185.000000 234.252625 15.000000
183.892761 235.000000 15.000000
185.000000 235.000000 16.187756
185.000000 235.000000 58.350304
185.000000 234.002258 60.000000
183.971680 235.000000 60.000000
185.000000 232.126297 65.000000
181.886566 235.000000 65.000000
185.000000 236.904694 20.000000
181.714188 240.000000 20.000000
185.000000 236.696655 25.000000
180.886017 240.000000 25.000000
185.000000 235.643753 30.000000
185.000000 235.958710 35.000000
185.000000 236.873840 40.000000
185.000000 237.215134 45.000000
185.000000 237.138428 50.000000
185.000000 236.431824 55.000000
189.337540 165.000000 20.000000
190.000000 165.000000 23.260960
190.000000 164.730530 25.000000
190.000000 164.692062 30.000000
190.000000 164.705658 35.000000
190.000000 164.805603 40.000000
190.000000 165.000000 41.078915
189.165588 165.000000 45.000000
188.008804 165.000000 50.000000
187.210754 165.000000 55.000000
186.151810 165.000000 60.000000
187.153030 170.000000 10.000000
189.833237 170.000000 15.000000
190.000000 170.000000 15.171562
190.000000 165.639618 20.000000
190.000000 165.699234 45.000000
190.000000 166.754227 50.000000
190.000000 167.299576 55.000000
190.000000 167.589737 60.000000
190.000000 168.431427 65.000000
190.000000 170.000000 67.834427
190.000000 172.847763 10.000000
190.000000 175.000000 6.691765
190.000000 170.156677 15.000000
186.855103 175.000000 20.000000
187.400452 175.000000 25.000000
187.640854 175.000000 30.000000
187.733444 175.000000 35.000000
187.733932 175.000000 40.000000
187.655457 175.000000 45.000000
187.472015 175.000000 50.000000
186.801422 175.000000 55.000000
190.000000 171.443665 70.000000
190.000000 173.310257 75.000000
190.000000 175.000000 78.748444
189.084900 175.000000 80.000000
187.040436 175.000000 85.000000
185.320007 180.000000 10.000000
190.000000 180.000000 6.204252
186.808350 180.000000 15.000000
188.411438 180.000000 20.000000
190.000000 179.689606 25.000000
